4.315395343743907688e+03 1.393181977336205136e+03 -4.685411683710637476e+02
-2.937531801645751329e+03 -2.557620620102255089e+03 -2.908654643210496033e+03
1.590414134273698892e+03 -1.723070513632868369e+03 -3.742559558773589288e+03
4.252105232576774142e+03 1.428298730073908246e+03 -4.862922000898717556e+02
2.954799583529306346e+03 -2.673576041706587034e+02 -3.726102188198156909e+03
-2.938914033711981119e+03 -2.548311192007375212e+03 -2.899257942167948841e+03
2.898149666641487329e+03 -3.795770110466428378e+02 -3.513928763200082813e+03
5.222330558142210975e+03 -1.129638215244898447e+03 -1.368459990403220672e+03
1.590359350984761932e+03 -1.723091338667398759e+03 -3.742498825205760113e+03
1.590423768683305525e+03 -1.723288334623549190e+03 -3.742732160997541996e+03
1.590433110674179034e+03 -1.723188301139690793e+03 -3.742607385515001170e+03
3.446014305150450809e+02 -3.098055913793321452e+03 -2.823816630754748076e+03
2.739510777439357753e+03 -6.224140597453331338e+02 -3.382205804511657334e+03
-2.148852423057058786e+03 -1.406217456442084313e+03 -2.395627310564829713e+03
1.590433110674179034e+03 -1.723188301139690793e+03 -3.742607385515001170e+03
1.590433110674179034e+03 -1.723188301139690793e+03 -3.742607385515001170e+03
5.224217829359642565e+03 -1.127031654951849077e+03 -1.379401618888818803e+03
1.590338978160074930e+03 -1.723155792846728218e+03 -3.742450106356739525e+03
1.590338978160075158e+03 -1.723155792846728218e+03 -3.742450106356739525e+03
-3.253122890647500299e+03 -2.167825749567391995e+03 -2.393032270827573029e+03
1.590433110674179034e+03 -1.723188301139690793e+03 -3.742607385515001170e+03
5.911707839334816299e+02 -2.829773744138466100e+03 -2.999138897435676881e+03
1.590433110674179034e+03 -1.723188301139690793e+03 -3.742607385515001170e+03
-2.986001760206461768e+03 -2.457069794754938812e+03 -2.795748170884961837e+03
-2.988483362039139138e+03 -2.449083123220146717e+03 -2.787839972540200051e+03
1.550715163682175898e+03 -1.685804527634957367e+03 -3.687938900654898134e+03
1.585910274514528055e+03 -1.718835906218775563e+03 -3.736028950840211564e+03
1.590433110674179034e+03 -1.723188301139690793e+03 -3.742607385515001170e+03
4.240681644645260349e+03 1.435860533236627361e+03 -4.867757622330472032e+02
-3.467289434050938780e+03 -1.806348814799669753e+03 -1.963675276242876407e+03
2.941821047754068331e+03 -2.550564192871625551e+02 -3.737150269160964854e+03
1.590453771705671443e+03 -1.723097097836948933e+03 -3.742548601995293666e+03
-3.042796542131772185e+03 -2.361788884339530341e+03 -2.683183608349085262e+03
3.970871553915930235e+03 1.604764870736372814e+03 -5.198389504009923030e+02
3.244004023513620268e+03 -4.349419681562535516e+02 -4.462042759743942042e+03
2.928783672650070912e+03 -2.490223913238135935e+02 -3.733314103007812719e+03
-2.967253393289180167e+03 -2.529321756574240680e+03 -2.866840870677943258e+03
4.272966608172721863e+03 1.416961639505894709e+03 -4.791053945326499957e+02
4.225206735502513766e+03 1.444906414198361290e+03 -4.905230878246173916e+02
4.763584349441106497e+03 1.615737143648380197e+03 -2.903667776826711361e+03
2.970202227799017237e+03 -2.605940137152695115e+02 -3.765242646240692466e+03
4.122223579447194425e+03 1.511438940826185444e+03 -5.025090082268428660e+02
-3.462805612418423607e+03 -1.799868945395163564e+03 -1.962659042429320834e+03
-3.462106445110871391e+03 -1.798935312342498264e+03 -1.962414885583167006e+03
-2.174089486739631411e+03 -1.417048311469112605e+03 -2.389959152470120443e+03
-2.189483149973080344e+03 -1.385959186234122626e+03 -2.360523501586769271e+03
2.928783672650070912e+03 -2.490223913238135935e+02 -3.733314103007812719e+03
-3.433639682554891806e+03 -2.400834775284192801e+03 -2.968366325298693937e+03
2.927483236746384136e+03 -2.505983859678854628e+02 -3.730814206669564101e+03
3.922941271635702833e+03 1.636746703681595363e+03 -5.209241517600589759e+02
3.950122428291025244e+03 1.620432960679436519e+03 -5.201131321427932335e+02
2.096442242347821775e+03 1.905203938534377812e+03 -7.855082456937044526e+02
2.932144148447963289e+03 -2.518827133767146620e+02 -3.732362052709110230e+03
2.096442242347822230e+03 1.905203938534377812e+03 -7.855082456937044526e+02
-2.007502535730224508e+03 -2.413464016536701706e+02 -1.679981699238531974e+03
-1.294661678140839967e+03 -1.225063632725094067e+03 -6.316741621607887282e+03
4.827898906997822337e+02 -1.451461471906647375e+03 -6.629909203759591037e+03
4.721035902514838085e+02 -1.447994890254125039e+03 -6.628655869305921442e+03
3.944119477449002261e+03 1.624356367665686776e+03 -5.189577070550280951e+02
-3.462267453536379435e+03 -1.798575570391607471e+03 -1.961448183443771541e+03
4.276573594803250671e+03 1.417957407015787339e+03 -4.722798322998887670e+02
-2.920389002107679516e+03 -1.931592905153465153e+03 -2.407897849912760194e+03
-1.169702871904282347e+03 -1.181991665230307490e+03 -6.367387476293575673e+03
-2.242594832052325728e+03 -1.299229620378590425e+03 -2.278717321876912138e+03
4.759429784255689810e+03 2.701825902151413629e+03 -2.544651549738382528e+03
3.918177882065655922e+03 1.640371416945894453e+03 -5.193461644031983724e+02
3.918934844004636489e+03 1.639248571438015006e+03 -5.186088612575626939e+02
4.197441820182993979e+03 1.464729777612101998e+03 -4.887294843778856261e+02
-1.197823941830785088e+03 -1.195682523444644630e+03 -6.353385455454284056e+03
5.569836040205123936e+03 1.714733076803835957e+03 -4.646543262462781058e+03
-1.279033900967076534e+03 -1.220522821378023991e+03 -6.322438562912599991e+03
2.836811681678171226e+03 1.880287207044989600e+03 -3.519723226608376081e+03
-1.294193546717280697e+03 -1.222446918430917776e+03 -6.318098549326286957e+03
4.024569289834236315e+03 1.573596944060475607e+03 -5.090076539461630318e+02
3.919775757915998838e+03 1.638153565072957917e+03 -5.180120336596262405e+02
5.490234580766204090e+03 1.823109176280904194e+03 -4.610308849774940427e+03
-1.157847413042250537e+03 -1.171069136564701239e+03 -6.374854277590146012e+03
4.197441820182993979e+03 1.464729777612101998e+03 -4.887294843778856261e+02
5.488829676070907226e+03 1.825079433527423362e+03 -4.607277644005923321e+03
-1.302762282281627677e+03 -1.219196244313119223e+03 -6.317633808079552182e+03
-1.289577301792697881e+03 -1.215740550888728194e+03 -6.322238058848626679e+03
-1.356428378168836844e+03 -1.231814912728704030e+03 -6.299951121437444272e+03
-3.465622101247720366e+03 -1.801340061849449512e+03 -1.960747573654812641e+03
-1.196199535796692999e+03 -1.181881779475451367e+03 -6.361430386789113982e+03
4.746280033757020647e+03 2.716327486121338552e+03 -2.465996205670325253e+03
2.050697650537163099e+03 1.607419909934787484e+03 -5.423774735656947087e+03
-3.328974605352889739e+03 -1.658144012953083120e+03 -1.933998242119711449e+03
-1.276166937230028907e+03 -1.212355409774060263e+03 -6.327038781973976256e+03
-4.347765345194025940e+03 -1.974690510447269844e+03 -3.472708218317355204e+03
2.760942765317245176e+03 2.048664825561681027e+03 -3.285277638096923965e+03
4.746280033757020647e+03 2.716327486121338552e+03 -2.465996205670325253e+03
2.750001352913631308e+03 2.058402545265039407e+03 -3.284610670551609473e+03
2.207540745144486209e+03 2.309485130160226618e+03 -3.697348682169260428e+03
2.692397613250310314e+03 2.094267699544361676e+03 -3.326655957223635596e+03
5.248013223979771283e+03 2.150136224678048620e+03 -4.307436289964394746e+03
4.132446343441544741e+03 1.505212782039578542e+03 -4.966081571643793495e+02
4.746280033757020647e+03 2.716327486121338552e+03 -2.465996205670325253e+03
2.761967203690976930e+03 2.042948754605986778e+03 -3.196221938380367646e+03
4.165322453092153410e+03 1.484414354619791766e+03 -4.933508961489758917e+02
4.746271006506658523e+03 2.716370432140842240e+03 -2.466004694838966770e+03
4.746280033757020647e+03 2.716327486121338552e+03 -2.465996205670325253e+03
2.052826442916154519e+03 1.629914729653658242e+03 -5.374127148980759557e+03
4.746280033757020647e+03 2.716327486121338552e+03 -2.465996205670325253e+03
4.746280033757020647e+03 2.716327486121338552e+03 -2.465996205670325253e+03
-1.752760862059024589e+02 1.026224564121565891e+03 -1.719706224139200117e+02
4.746325835811572688e+03 2.716296524792144737e+03 -2.466004886137560788e+03
2.207540745144486209e+03 2.309485130160226618e+03 -3.697348682169259519e+03
4.746280033757020647e+03 2.716327486121338552e+03 -2.465996205670325253e+03
2.305247281130080410e+03 1.739507965196434498e+03 -4.964916184316500221e+03
2.618331092245424315e+03 2.142298110288358657e+03 -3.380341436583971699e+03
-4.699625257614960901e+03 -1.711894883197887566e+03 -3.634257318891508476e+03
2.959904967502943236e+03 1.953933036383742319e+03 -1.242568627168615478e+02
2.338544204437117060e+03 2.255280419401599829e+03 -3.708627781687845072e+03
3.897034613810131759e+03 1.649283886660161897e+03 -5.117333573749659763e+02
2.123181529814180521e+03 1.706411030048811881e+03 -4.602333857920346418e+03
5.019908026910874469e+03 2.423200586303914406e+03 -3.639607039098195855e+03
3.916050856382053553e+03 1.639615074300754031e+03 -5.168776019264385013e+02
5.290763629660969855e+03 2.097947148075895711e+03 -4.419399589634551376e+03
5.253750140390486195e+03 2.133490782242710338e+03 -4.211857860665800217e+03
4.746311052253249727e+03 2.716291283412990197e+03 -2.465995988680166647e+03
5.265476267039219238e+03 2.112669293125381955e+03 -4.180479474168130764e+03
4.746311052253249727e+03 2.716291283412989742e+03 -2.465995988680166647e+03
5.134630362846323806e+03 2.269794973728271543e+03 -3.803050551864975660e+03
3.916050856382053553e+03 1.639615074300754259e+03 -5.168776019264385013e+02
3.919610433265474967e+03 1.637405459228341442e+03 -5.172450910129787189e+02
2.194759061490525710e+03 2.294469270270534253e+03 -3.702482710772237624e+03
4.746311052253249727e+03 2.716291283412989742e+03 -2.465995988680166647e+03
4.746311052253249727e+03 2.716291283412989742e+03 -2.465995988680166647e+03
5.272225639369944474e+03 2.098940880797350928e+03 -4.141722249567732433e+03
-1.483273970003318482e+03 2.730490731261966175e+00 -6.285325333140239309e+03
1.982107761053594459e+03 2.380860797484436262e+03 -3.561943397673426261e+03
-1.981214618898396338e+03 -7.536974994231040625e+01 -1.662828265213388249e+03
2.644471886175980217e+03 2.031207667078588202e+03 -2.860686379050389405e+03
2.242426760845080025e+03 2.325663422854996043e+03 -3.688006399605716979e+03
2.227484566073157112e+03 2.330544898619765263e+03 -3.678152312491633893e+03
2.145331972141514143e+03 2.350729105303732467e+03 -3.638251981710741347e+03
-1.997230782053976100e+03 -1.959590919797468018e+02 -1.674089363650537052e+03
2.122558807526668261e+03 2.357839299220138855e+03 -3.624651219438392673e+03
4.746359956157423767e+03 2.716256701812960273e+03 -2.466004647448387004e+03
1.647899948779268470e+03 2.496936379141101497e+03 -3.350944142676675256e+03
2.420080589134106049e+03 2.246762362486800157e+03 -3.457927006200771757e+03
2.115331732955025473e+03 1.860469466825918516e+03 -5.063833047555292069e+03
2.539359612833436586e+03 2.042614348964139481e+03 -2.770571752765138626e+03
-4.905097913544122093e+03 -1.379701506786783057e+03 -3.757124026714228421e+03
-1.997230782053976100e+03 -1.959590919797468018e+02 -1.674089363650537052e+03
3.949485112923573524e+03 1.619468354238017810e+03 -5.151283862628598627e+02
2.499820329529985884e+03 2.124958090157447259e+03 -3.031639031925205472e+03
2.461058210672898440e+03 2.110054135344064889e+03 -2.917002630041157772e+03
1.818438028695280082e+03 2.452635857649061563e+03 -3.446424811538262475e+03
-8.349215570646781543e+02 7.900680388127393599e+02 -2.984335494579393071e+03
-1.571869401979479335e+03 7.650801412361697658e+02 -6.182905815767829154e+03
4.746375816640404992e+03 2.716256691434281493e+03 -2.466005163347918824e+03
4.099053608390432601e+03 1.526420050726777163e+03 -4.999135535957119600e+02
-3.463803378261743546e+03 -1.800858571863653879e+03 -1.961066408395739245e+03
2.316853118878222631e+03 2.055055363784749261e+03 -2.343479559530914230e+03
4.746375816640404992e+03 2.716256691434281493e+03 -2.466005163347918824e+03
-1.996205582241921093e+03 -1.886819305478905449e+02 -1.673371849322137905e+03
3.928051676148519618e+03 1.632839747347778030e+03 -5.185448134176261874e+02
-1.139502935001694368e+03 1.537728975937847281e+03 -3.707190061904940194e+03
1.485716137486825119e+03 2.539773567196068598e+03 -3.253008467796310015e+03
2.057619439784117276e+03 2.385310721003405888e+03 -3.575275537665573211e+03
2.980597724478998316e+03 1.940116672806092993e+03 -1.308247022213384128e+02
1.549747524914302630e+03 1.803331699370472052e+03 -1.595837248337953156e+02
4.746348924995684683e+03 2.716277390115402795e+03 -2.466013137423136413e+03
4.746375816640404992e+03 2.716256691434281493e+03 -2.466005163347918824e+03
2.116338431567226053e+03 2.370899348392603315e+03 -3.605552656262481378e+03
-3.463803378261743546e+03 -1.800858571863653879e+03 -1.961066408395739245e+03
2.260478865787486029e+03 2.303219053481471747e+03 -3.523823394079341142e+03
1.482490944404135462e+03 2.537530941293685828e+03 -3.250685593213988795e+03
4.746375816640404992e+03 2.716256691434281493e+03 -2.466005163347918824e+03
1.482490944404135462e+03 2.537530941293685828e+03 -3.250685593213988795e+03
2.105733894060123021e+03 2.372498528472545786e+03 -3.599941764164233064e+03
2.307964221478365289e+03 2.057930248217036024e+03 -2.349742230456061407e+03
4.746375816640404992e+03 2.716256691434281493e+03 -2.466005163347918824e+03
1.485716137486825119e+03 2.539773567196068598e+03 -3.253008467796310470e+03
-1.478594350253237508e+03 1.149895600596205441e+03 -5.526752173321025111e+03
1.173441401969214212e+03 2.351110654819163756e+03 -3.254721164915550617e+03
1.173441401969214212e+03 2.351110654819162846e+03 -3.254721164915550617e+03
2.105733894060123021e+03 2.372498528472545786e+03 -3.599941764164233064e+03
-1.477248910277814048e+03 1.148545731538697055e+03 -5.523636532776619788e+03
2.822487943873772110e+03 3.390179898742177556e+03 -4.624933085194282285e+03
1.234937648322440964e+03 2.389150772338032766e+03 -3.248399502715400558e+03
1.204249657911719396e+03 2.370725733559992932e+03 -3.248774482158529281e+03
1.482490944404135462e+03 2.537530941293685828e+03 -3.250685593213988795e+03
2.801149603445650428e+03 3.354409852102292007e+03 -4.586080325670758612e+03
1.266625339801163591e+03 2.408545563097945433e+03 -3.244939302891237276e+03
4.169414142486001765e+03 1.482317128193923963e+03 -4.916999163703401905e+02
4.746375816640404992e+03 2.716256691434281493e+03 -2.466005163347918824e+03
1.482490944404135462e+03 2.537530941293685828e+03 -3.250685593213988795e+03
1.482490944404135462e+03 2.537530941293685828e+03 -3.250685593213988795e+03
2.815483637816440933e+03 3.470518026876489785e+03 -4.690439178729940977e+03
1.482329583763062601e+03 2.537327679873513262e+03 -3.251069410223243722e+03
1.484145158716979950e+03 2.538709909915310163e+03 -3.252358127052144937e+03
-1.475844155646923809e+03 1.147239848462502550e+03 -5.520230617706367411e+03
2.090158003847449891e+03 2.374867317550740154e+03 -3.594547136805917489e+03
4.670752226290281214e+03 4.138190981920005470e+03 -3.006321742649518001e+03
2.656794612994014642e+03 3.356489015010417006e+03 -4.684324954130758670e+03
1.212776217865801982e+03 2.379911871893839816e+03 -3.239385200111360518e+03
1.302790274989271211e+03 2.430443576748228679e+03 -3.242160836921321788e+03
-3.462783316986975024e+03 -1.800510158000073716e+03 -1.961350703926505275e+03
-1.163633078333104550e+03 1.543193065019231199e+03 -3.684631040937166745e+03
-1.207833490029242284e+03 1.531670932826431908e+03 -3.579967966061982679e+03
1.256491855844583597e+03 2.402749259103010445e+03 -3.240419538129985540e+03
1.484021885379004971e+03 2.538421980700321456e+03 -3.252322947968578319e+03
2.635469325822089559e+03 3.309316531316352666e+03 -4.632441638193868130e+03
-3.709342045750170769e+02 -1.186941677902657659e+02 -1.685784476361296129e+03
-1.474385263513442169e+03 1.146034022734338123e+03 -5.516537666142167836e+03
4.746373997581335971e+03 2.716241220803935903e+03 -2.466017652757154337e+03
1.483960725475102208e+03 2.538234301681424768e+03 -3.252287680602191358e+03
2.027095774439409752e+03 2.391754739431085909e+03 -3.559292717959300262e+03
-1.477712506704442148e+03 1.138103415531508972e+03 -5.536806705454559051e+03
-1.824721299912405129e+03 1.404433581349809856e+03 -5.913536625636585086e+03
5.920080004309002106e+02 3.388679026812185384e+03 -4.319183875207902020e+03
-1.217159731999847736e+03 1.529482099968546891e+03 -3.561197761139916111e+03
4.666260172078254072e+03 4.100351184252254825e+03 -2.988087875428823281e+03
1.843837400589163053e+03 2.063461519780008985e+03 -8.520650963472595549e+02
1.346505912968052826e+03 2.453280963957398399e+03 -3.243195174939946810e+03
4.632529726809370914e+03 3.888603001775524717e+03 -2.922915114988564255e+03
-1.241124421092552211e+03 1.530520749143487819e+03 -3.534135342654235046e+03
1.483933926617189172e+03 2.538143803353747444e+03 -3.252253977600455073e+03
4.428125164101159498e+03 4.163181427442515087e+03 -3.049275859502993171e+03
4.857431345276878346e+03 3.069925537784596145e+03 -2.370648153424321208e+03
3.361691894968037559e+03 1.829174793748924685e+03 -2.861354119339400199e+02
4.163246705141320490e+03 1.488661447674759529e+03 -4.867456681229752462e+02
1.483919001046681160e+03 2.538133850690850068e+03 -3.252223681437758387e+03
1.479892231730817912e+03 2.535042190550142095e+03 -3.250600146553087143e+03
2.989591662269778226e+03 1.930969011025112650e+03 -1.349267781775267281e+02
1.414352510638159401e+03 2.493736159882023458e+03 -3.245317750529170553e+03
1.265209636693724860e+03 1.840962179707622909e+03 -5.910754921890336391e+02
4.692820517426874176e+03 3.365354603824818241e+03 -2.715063042663331089e+03
-1.251674183659597020e+03 1.529810211821652501e+03 -3.519438555813766925e+03
1.483919001046681160e+03 2.538133850690850068e+03 -3.252223681437758387e+03
4.658325738042500234e+03 3.592666062474246246e+03 -2.802128837592737000e+03
-1.258807647387267025e+03 1.528751595587979864e+03 -3.505298405041184196e+03
1.067010333461757227e+03 2.339623078896529933e+03 -3.224505790396499378e+03
2.993290826560255027e+03 1.926662248408766118e+03 -1.376630371010715805e+02
4.746375816640404992e+03 2.716256691434281493e+03 -2.466005163347918824e+03
-1.342797356213507101e+03 1.471253373094935341e+03 -3.260711656515700270e+03
1.783687057884616024e+03 1.957846542630953991e+03 -1.073780510667267833e+02
1.483919001046681160e+03 2.538133850690850068e+03 -3.252223681437758387e+03
1.551104026686431098e+03 1.917259248210339138e+03 -2.855452096345871382e+02
1.431194568962303038e+03 2.504647287127495929e+03 -3.247403202415562646e+03
-1.268321440448505200e+03 1.516287948535847590e+03 -3.458427184656970439e+03
1.363354212476260273e+03 2.463649841041156833e+03 -3.245345732280013181e+03
-7.753700582880230563e+00 1.106263692925478381e+03 -1.709516726544104301e+02
1.441179732278519587e+01 1.091541261056191843e+03 -1.206909661485991165e+02
4.787828862813334126e+03 2.835947215785769004e+03 -2.420947524703254203e+03
2.504690758014877701e+03 4.471661679207320049e+03 -3.353632814263420187e+03
8.151835361862868012e+01 1.299196211871904779e+03 -6.331366445309722621e+02
-1.277377934205688007e+03 1.514925169481714420e+03 -3.441529681382535728e+03
2.891468350527391067e+03 5.229098966272018515e+03 -3.382094647783173514e+03
-2.601771053713475226e+02 4.361073284286758280e+03 -3.796146834519501226e+03
-1.844973000584244801e+03 9.669754988086612002e+02 -1.563891857925249951e+03
4.787824496065337371e+03 2.835953393355754997e+03 -2.420946947687221382e+03
2.891490114208955220e+03 5.229542076996860487e+03 -3.381014263866445162e+03
2.891930231459874449e+03 5.229926549477177105e+03 -3.380153898971287617e+03
1.326840606277721463e+03 1.809730897662295774e+03 -3.454200625385768717e+02
1.178670730211122645e+03 1.690589082439130379e+03 -2.372714686817111271e+02
1.369155775021438330e+03 1.787196039340837842e+03 -7.250076295520554481e+01
2.891700745865071895e+03 5.230009062512852324e+03 -3.380112483411482572e+03
2.892002935538187558e+03 5.230543203901864217e+03 -3.379336512972098717e+03
-1.845392384881079806e+03 9.678192737845962483e+02 -1.563572811773061403e+03
2.892076559114325846e+03 5.230879101378877749e+03 -3.378873282407582337e+03
2.892240539765666654e+03 5.231298566249578471e+03 -3.378582824669888396e+03
-2.071735259144397787e+03 1.850342793174384042e+03 -5.615171251034760644e+03
2.868706215331837484e+03 1.957044807596677174e+03 -8.935175059371758266e+01
2.565187101376770329e+02 4.406263602617961624e+03 -3.542891958941826488e+03
-2.853758314107607021e+03 1.629060081269205511e+03 -2.585108416578036213e+03
5.049813329809730931e+02 1.093227541246793180e+03 6.136933436222746963e+01
1.157996156928355731e+03 2.380555618085243623e+03 -2.941821858259035707e+03
-5.792691479352014312e+02 4.320060915013833437e+03 -3.652092677343146988e+03
1.479892231730817912e+03 2.535042190550142095e+03 -3.250600146553087143e+03
3.923343189784632614e+03 1.635332499247225542e+03 -5.178223784496200324e+02
2.872238541988818724e+03 1.952478428176767466e+03 -9.220985846994835811e+01
1.855445004700767413e+03 4.295372132525328198e+03 -2.469730695863638630e+03
2.519014596439963498e+03 5.053317746761324088e+03 -3.366924300000903713e+03
2.892240539765666654e+03 5.231298566249578471e+03 -3.378582824669888396e+03
-2.853758314107607021e+03 1.629060081269205511e+03 -2.585108416578036213e+03
1.157996156928355731e+03 2.380555618085243623e+03 -2.941821858259035253e+03
1.479687588134694806e+03 2.534922551315391956e+03 -3.250415607042710235e+03
2.743379430023139321e+03 1.918758268315913256e+03 -6.872301047166051546e+01
-5.792691479352015449e+02 4.320060915013833437e+03 -3.652092677343146534e+03
1.118726056253012302e+03 1.599963319990301443e+03 1.762520949033934414e+02
2.565187101376770897e+02 4.406263602617961624e+03 -3.542891958941826488e+03
2.892240539765666654e+03 5.231298566249578471e+03 -3.378582824669888396e+03
2.583234178015344469e+02 4.432940738728896577e+03 -3.514022803464158642e+03
2.892240539765666654e+03 5.231298566249578471e+03 -3.378582824669888396e+03
2.892240539765666654e+03 5.231298566249578471e+03 -3.378582824669888396e+03
-1.505052764385450018e+03 1.484397991523959718e+03 -3.080884925183705946e+03
2.846286961766962236e+02 1.590575125143689093e+03 -1.226518782649447076e+03
2.952572399771613618e+03 5.340817724479712524e+03 -3.173021630008618104e+03
1.719199894355051583e+03 4.110622802767934445e+03 -2.420650987015184000e+03
2.265861725045198909e+03 4.712721103988197683e+03 -2.768057523944714376e+03
1.451947858505037175e+03 2.516877358509674195e+03 -3.247678549902476789e+03
2.722299614349669241e+02 4.419062075754835860e+03 -3.530460354271925553e+03
2.594816956331583242e+02 4.437878569214588424e+03 -3.508445575626881237e+03
2.891972673003167074e+03 5.229276721936157628e+03 -3.382050621544134628e+03
2.891972673003167074e+03 5.229276721936157628e+03 -3.382050621544134628e+03
2.891972673003167074e+03 5.229276721936157628e+03 -3.382050621544134628e+03
2.756760136376736227e+03 1.910089244115904421e+03 -7.639473049425957640e+01
1.737051648062966251e+03 4.115058452370833038e+03 -2.452339389175805081e+03
-5.722123970551149341e+02 4.310132592985745760e+03 -3.527704249931296999e+03
-2.239616778950366097e+03 1.866442873583521987e+03 -2.234370028734123480e+03
2.527726737106533221e+02 4.435478223691575295e+03 -3.508724090902389435e+03
2.527726737106533221e+02 4.435478223691575295e+03 -3.508724090902390344e+03
8.815771561230454836e+02 6.157037773834974359e+03 -3.877539169231278265e+03
3.528370985730666234e+03 6.401334144673677656e+03 -6.344606294396630801e+02
-2.475818778178276318e+02 4.332363177387604992e+03 -3.531445918983675710e+03
-5.902506333277085560e+02 4.417361541023876271e+03 -3.355458739587203127e+03
-3.527547777890919747e+02 4.322099145598514042e+03 -3.443396436188775169e+03
8.311386707166979022e+02 6.014003167911592755e+03 -3.819114678633470703e+03
2.534946820800454077e+02 4.438239073435204773e+03 -3.506923056057638860e+03
2.568669470976627167e+02 4.446337267886600785e+03 -3.500051258108141155e+03
2.891972673003167074e+03 5.229276721936157628e+03 -3.382050621544134628e+03
8.319897174770364927e+02 2.039891400912001018e+03 -2.210996178367847278e+03
1.557463586621832292e+03 3.604708259397361871e+03 -2.595412630972487023e+03
8.745927881132989796e+02 6.157774832757639160e+03 -3.852425221600085933e+03
2.180498759018455985e+03 4.619394630118033092e+03 -2.714435186814734152e+03
2.892068334876664267e+03 5.229141313799929776e+03 -3.382421265545203823e+03
2.531235342506176949e+02 4.447220566370555389e+03 -3.498900993848460530e+03
8.736491161987838723e+02 6.155905151329890941e+03 -3.841482342183546280e+03
2.891999865716976274e+03 5.229203487878487977e+03 -3.382244435357400107e+03
3.528370985730666234e+03 6.401334144673678566e+03 -6.344606294396630801e+02
-2.207564107065602457e+03 1.878728812501013408e+03 -2.216125872319197697e+03
2.892417241398577062e+03 5.230004293253940887e+03 -3.381507871011121551e+03
-2.853758314107607021e+03 1.629060081269205511e+03 -2.585108416578036213e+03
2.458001866936870954e+02 4.445067638040201018e+03 -3.499652670209646203e+03
2.082890400008157485e+03 4.508417285493478630e+03 -2.670265059336375089e+03
-3.235074968864299194e+02 4.327458377042601569e+03 -3.413919808835385084e+03
8.724488317554703372e+02 6.153989501584763275e+03 -3.830563716708497850e+03
-2.117893916256526154e+03 2.883597970139630888e+03 -2.279255032120401211e+03
3.378639145112922506e+03 1.811150747388729769e+03 -2.964539033616424035e+02
3.434691726068504067e+03 6.202030571969949960e+03 -1.112209510869765381e+03
-2.129392979770602778e+03 2.886258143858536187e+03 -2.276496457908693628e+03
-4.840520780924960491e+03 1.363885653259934088e+03 -3.216415797907573960e+03
-3.462783316986975024e+03 -1.800510158000073716e+03 -1.961350703926505275e+03
8.014727620194775000e+02 2.025356584789658200e+03 -2.179983530798665925e+03
-2.141282614195749829e+03 2.877204642628714737e+03 -2.271759278449016165e+03
1.710383698972602815e+03 4.027631889545433751e+03 -2.494896966045937006e+03
2.894678832983641769e+03 5.240382108577900908e+03 -3.368637411403777605e+03
2.892068334876664267e+03 5.229141313799930685e+03 -3.382421265545203823e+03
8.714128265575585601e+02 6.151426272958112349e+03 -3.819936982497879399e+03
2.891972673003167074e+03 5.229276721936157628e+03 -3.382050621544134628e+03
-2.141282614195750284e+03 2.877204642628714737e+03 -2.271759278449016165e+03
-2.825291411499147785e+02 4.331183385861053466e+03 -3.380433788135672330e+03
-4.559436121090575398e+03 1.339941339091528562e+03 -3.029981675241523590e+03
-4.912046129369666232e+03 1.476026352969701520e+03 -3.353169663401712114e+03
2.892417241398577062e+03 5.230004293253940887e+03 -3.381507871011121551e+03
2.282894400258342671e+02 4.489424318002960717e+03 -3.459178549453757114e+03
-2.849531545350390843e+03 1.631154471568758709e+03 -2.580601737453198893e+03
-2.843593216949416274e+03 1.633545364525427885e+03 -2.576860754448914122e+03
-2.207564107065602457e+03 1.878728812501013408e+03 -2.216125872319197697e+03
2.282894400258342671e+02 4.489424318002960717e+03 -3.459178549453757114e+03
7.971522557169723768e+02 5.974370962811497520e+03 -3.704288164622143995e+03
2.251739910116588419e+02 4.489562745054139668e+03 -3.457784461162156276e+03
-4.893145279656431740e+03 1.447308809099413793e+03 -3.319490413064800578e+03
-2.837264792703314924e+03 1.635958028886558395e+03 -2.573127740809580246e+03
2.771405731227159777e+03 1.900929245100229309e+03 -8.443457578141638464e+01
-2.207939021980439520e+03 3.046744407314266937e+03 -2.328290976178654546e+03
2.891999865716976728e+03 5.229203487878487977e+03 -3.382244435357400107e+03
-2.207564107065602457e+03 1.878728812501013408e+03 -2.216125872319197697e+03
-2.830608180788686695e+03 1.638333211660705729e+03 -2.569385910426238297e+03
-2.762454227254147099e+03 4.190036435573801100e+03 -2.723733180574175549e+03
-1.545812604220914409e+03 5.548066694745104542e+03 -1.817241164394770067e+03
-1.860101342045199317e+03 4.472254860545603151e+03 -2.150685095264037045e+03
3.525848840247203043e+03 6.402352047207487885e+03 -6.322279502186136142e+02
3.525848840247203043e+03 6.402352047207488795e+03 -6.322279502186136142e+02
-4.893145279656431740e+03 1.447308809099413793e+03 -3.319490413064800578e+03
2.891972673003167074e+03 5.229276721936157628e+03 -3.382050621544134628e+03
-4.840520780924959581e+03 1.363885653259934315e+03 -3.216415797907573960e+03
3.525848840247203043e+03 6.402352047207488795e+03 -6.322279502186136142e+02
2.553190967796712840e+01 4.673699398518643648e+03 -3.247409747429709114e+03
-2.141282614195749829e+03 2.877204642628714737e+03 -2.271759278449016165e+03
-2.207564107065602457e+03 1.878728812501013408e+03 -2.216125872319197697e+03
-2.207564107065602457e+03 1.878728812501013408e+03 -2.216125872319197697e+03
-1.981214618898396338e+03 -7.536974994231040625e+01 -1.662828265213388249e+03
-1.512160690710435802e+03 5.187622386775717132e+03 -2.317333454700140464e+03
5.002333564729112368e+03 4.824117835872457363e+03 1.107811898725768060e+03
7.576707428728876721e+02 6.002386517079618898e+03 -3.267214667784778158e+03
8.720969689320185125e+02 6.316761230375957894e+03 -3.272446005449156473e+03
3.525848840247203043e+03 6.402352047207488795e+03 -6.322279502186136142e+02
-1.713088567674292790e+03 5.549035106461747091e+03 -1.642084467594339003e+03
-4.864554363254288546e+03 1.400735819684436592e+03 -3.259503683728572469e+03
-4.835692873565911214e+03 1.356611134228615811e+03 -3.203214038854387127e+03
-2.207564107065602457e+03 1.878728812501013408e+03 -2.216125872319197697e+03
-2.239616778950366097e+03 1.866442873583521532e+03 -2.234370028734123025e+03
-1.680125533166817377e+03 5.566798034839526736e+03 -1.647226887325224425e+03
-2.207564107065602457e+03 1.878728812501013408e+03 -2.216125872319197697e+03
8.099864862764873124e+02 6.148350378399771216e+03 -3.262311795556385277e+03
-2.794810039167972718e+03 1.651844906029399226e+03 -2.549246804532173883e+03
7.127413017302335447e+02 5.813976359809445057e+03 -3.477815628758031380e+03
3.042319601331067133e+03 1.896851039723806480e+03 -1.652219499555290270e+02
-1.830875249363882176e+03 5.529711959624190058e+03 -1.545028566963805815e+03
5.136426639712389260e+03 4.405489497217205098e+03 1.644883371319089974e+03
-1.447563553733818026e+03 5.527822360673641924e+03 -1.854721098107066155e+03
-2.151630352954036425e+03 2.860028762228686901e+03 -2.267631421199374472e+03
-1.729549509515908312e+03 5.502761187386032361e+03 -1.724069358760170871e+03
-1.891589252752745324e+03 5.521427438636909756e+03 -1.486771443457733312e+03
5.129055202273122632e+03 4.377627198295782364e+03 1.683224337543015736e+03
3.525848840247203043e+03 6.402352047207488795e+03 -6.322279502186136142e+02
7.988500269321327778e+02 6.112952700442468995e+03 -3.274880537336358884e+03
-1.742841649500428957e+03 5.562563769160280572e+03 -1.585525582726719676e+03
3.521182346609768956e+03 6.404689579478521409e+03 -6.294885218214961924e+02
2.892036883099936404e+03 5.228934377304059126e+03 -3.382829177504355357e+03
-2.151630352954036425e+03 2.860028762228686901e+03 -2.267631421199374017e+03
-6.199665466650992585e+02 5.038979876637156849e+03 -2.607963859218264133e+03
-2.154155378055742858e+03 2.841082114624754922e+03 -2.266833310261846236e+03
-2.785609657289606730e+03 1.655182073335901123e+03 -2.544503108214252734e+03
-3.247670763152264044e+02 2.367787870268368806e+03 -4.963835567934576147e+02
-1.987264272790570885e+03 5.486870194730835465e+03 -1.443324583003738098e+03
3.477999083946109749e+03 6.420081051929175374e+03 -5.883259490986040419e+02
3.513077819009456107e+03 6.407931437136170643e+03 -6.235348318500509777e+02
-2.207564445968281234e+03 1.878728684002264345e+03 -2.216125308581809350e+03
-4.840311944533003043e+03 1.363894128340532689e+03 -3.216487984393867464e+03
3.469955617722231636e+03 6.423071954753168029e+03 -5.819547129263347642e+02
-2.160982340602694876e+03 2.701544014197565957e+03 -2.262111967324958641e+03
-2.105804288849366458e+03 5.882134710108969557e+03 -2.611783656671270364e+03
-2.021729665776410911e+03 5.473138512178289602e+03 -1.426979660498415114e+03
-2.373631505985009426e+03 6.095131759080073607e+03 -3.117489659067960929e+03
3.469955617722231636e+03 6.423071954753168029e+03 -5.819547129263347642e+02
-2.164008057310548338e+03 2.673948493221056651e+03 -2.260702680190002866e+03
-4.076859791155056314e+02 6.074654171352862249e+03 -1.362238425902649851e+03
3.467414300182654642e+03 6.423931794356248247e+03 -5.784217584801201610e+02
-2.370620851889839287e+03 6.095423921382321168e+03 -3.115138547487416872e+03
2.893753783564364767e+03 5.236587424932118665e+03 -3.373075207557614249e+03
3.464846256533112410e+03 6.424555649839373473e+03 -5.747160226786570547e+02
-2.194512448838599994e+03 5.377580724926273433e+03 -1.405021543216076907e+03
-2.123096937306928282e+02 6.329182916666569326e+03 -1.082096771832989816e+03
1.380867421606684957e+03 1.959810515787833992e+03 3.128273800499363233e+02
-1.857944707273487438e+03 5.531189686330579207e+03 -1.512776902205581564e+03
4.202450039721644316e+03 1.461296915586843625e+03 -4.883092422805794968e+02
-4.840440736509938688e+03 1.363912412427363506e+03 -3.216881009527300648e+03
-1.881025197473097705e+03 1.058586036068760450e+03 -1.629330047935977063e+03
-2.373631505985009426e+03 6.095131759080073607e+03 -3.117489659067960929e+03
-4.840440736509938688e+03 1.363912412427363506e+03 -3.216881009527300648e+03
-2.069961190292601714e+03 5.442937595627387964e+03 -1.430338567661204252e+03
-2.174035617887585431e+03 5.390385587296512313e+03 -1.406113556782813930e+03
2.861479415166232684e+03 2.121282460808034102e+03 -3.284511092153147729e+02
3.462285186699354199e+03 6.424953900802745920e+03 -5.708415789826481159e+02
-2.217388345340760225e+03 5.363841216754708512e+03 -1.403865037060138548e+03
-3.046282797046453652e+03 4.747457193649545843e+03 -2.185010459156655088e+03
2.231318263163907886e+03 4.088661404090422820e+03 -1.274706407603046898e+02
-2.207564107065602457e+03 1.878728812501013408e+03 -2.216125872319197697e+03
2.424972573438458767e+03 6.352776527576469562e+03 -4.512384646329103930e+02
-2.174035617887585431e+03 5.390385587296512313e+03 -1.406113556782813930e+03
-3.461636371373206202e+03 1.445588174332924154e+03 -2.534338243663872163e+03
-2.174035617887585431e+03 5.390385587296512313e+03 -1.406113556782813930e+03
-2.403950993500516233e+03 6.119034610331926160e+03 -3.173844107800724487e+03
-2.123096937306928282e+02 6.329182916666569326e+03 -1.082096771832989816e+03
-2.401112764873319975e+03 6.116630045185393101e+03 -3.172732520805656350e+03
-2.397991552804166986e+03 6.114677319896918561e+03 -3.171322025998396384e+03
-2.361275840861627330e+03 6.089564399719174617e+03 -3.110934104728920829e+03
-2.046620413453688911e+02 3.492197302519184632e+03 -7.017059855357661036e+02
-2.174035617887585431e+03 5.390385587296512313e+03 -1.406113556782813930e+03
-2.044528844108866394e+02 3.493357105603019590e+03 -7.024073078477218814e+02
-2.557943898217738933e+03 4.979994707774987546e+03 -1.692543516851777440e+03
-3.462783316986975024e+03 -1.800510158000073716e+03 -1.961350703926505275e+03
-2.044528844108866394e+02 3.493357105603019590e+03 -7.024073078477218814e+02
-4.829804147271618604e+03 1.342754152092935328e+03 -3.175626176810489142e+03
-4.822002533737230806e+03 1.299374453525147601e+03 -3.107794723594228344e+03
-3.072534981032909855e+03 1.587889034505284599e+03 -2.620902362292202270e+03
-2.165343398154757779e+03 2.656880295061767356e+03 -2.260192959403130772e+03
1.448989893423354715e+03 1.961546468916419371e+03 2.657071929280421045e+02
5.120532911223624978e+03 4.364069723386566693e+03 1.704758432938188662e+03
-2.160287482508599169e+03 5.399924324143702506e+03 -1.403077818912972361e+03
-4.891646394527547272e+03 1.435144465968593977e+03 -3.111892271302339850e+03
-2.181239505089042268e+03 5.386271216985117462e+03 -1.405350578708192188e+03
-2.123096937306928282e+02 6.329182916666569326e+03 -1.082096771832989816e+03
-2.778700510748366924e+03 1.658071404489182896e+03 -2.538999351356062107e+03
-2.123096937306928282e+02 6.329182916666569326e+03 -1.082096771832989816e+03
-2.275154362645277615e+03 5.282919373274709869e+03 -1.437590794779875523e+03
-2.207564107065602457e+03 1.878728812501013408e+03 -2.216125872319197697e+03
-2.275154362645277615e+03 5.282919373274709869e+03 -1.437590794779875296e+03
-4.835812125403369464e+03 1.356625291531056064e+03 -3.203588703804080524e+03
-4.835812125403368555e+03 1.356625291531056064e+03 -3.203588703804080978e+03
-2.046620413453688911e+02 3.492197302519185087e+03 -7.017059855357659899e+02
-2.951524850062759469e+03 4.850841014204289422e+03 -1.875263963706420327e+03
-2.046828560792717440e+02 3.492732947307268660e+03 -7.019791593960453611e+02
-2.046110955889890306e+02 3.493390142312512580e+03 -7.023754933113118568e+02
-3.369622051917939643e+03 4.675619832111487995e+03 -2.038257255993140916e+03
-2.123096937306928282e+02 6.329182916666569326e+03 -1.082096771832990044e+03
1.739165488446992413e+03 6.748703358714883507e+03 4.700618520318408855e+02
-2.205613874487713474e+03 5.371117520976847118e+03 -1.403722026009775163e+03
-2.046110955889890306e+02 3.493390142312512580e+03 -7.023754933113118568e+02
-2.043968440788688099e+02 3.494669229375680970e+03 -7.031437664008221873e+02
-2.123096937306928282e+02 6.329182916666569326e+03 -1.082096771832989816e+03
-2.043533102342206007e+02 3.495242172587039477e+03 -7.035913927281491169e+02
-2.044913891031609410e+02 3.495048459679666848e+03 -7.036529626603057750e+02
-2.152658305974646282e+03 5.404998342635337394e+03 -1.402686411002534442e+03
-2.152658305974646282e+03 5.404998342635337394e+03 -1.402686411002534442e+03
-1.044365640090216175e+03 1.517549744220285220e+03 -7.224671736838668323e+01
-2.123096937306928282e+02 6.329182916666569326e+03 -1.082096771832989816e+03
-2.207564311276954868e+03 1.878729597514455236e+03 -2.216125233458701132e+03
-2.044879803987767559e+02 3.494934465182521762e+03 -7.036293690474742561e+02
-2.044879803987767559e+02 3.494934465182522217e+03 -7.036293690474742561e+02
-2.217785754707514116e+03 5.363626475121292060e+03 -1.403869204084183821e+03
-2.188322254715572853e+03 5.381836556089227997e+03 -1.405507419439921023e+03
-2.217844275722337443e+03 5.363607105591571781e+03 -1.403883727759548947e+03
3.148324012640719047e+03 6.525814689396483118e+03 -2.312472079347734564e+02
-4.843300739723451443e+03 1.362764047161385179e+03 -3.210257380130513411e+03
-4.501344484646293495e+03 2.864024651676536450e+03 -2.248447298874084026e+03
-2.217388345340759770e+03 5.363841216754707602e+03 -1.403865037060138548e+03
-2.215726165010681143e+03 5.364942434940421663e+03 -1.403486005519718219e+03
-2.203485621578570772e+03 5.372435099247041762e+03 -1.403214425119816724e+03
2.549813987996725245e+03 6.688889422769100747e+03 3.173732023672073410e+02
2.541421651639231186e+03 6.688950603765090818e+03 3.162785976039372144e+02
-2.123096937306928282e+02 6.329182916666569326e+03 -1.082096771832989816e+03
-2.044329442172366953e+02 3.494823876208482943e+03 -7.035318246109217171e+02
-2.123071225200837944e+02 6.329177553961566446e+03 -1.082090169881462771e+03
2.532610169182229129e+03 6.688935298070769932e+03 3.151837596969547235e+02
-2.123071225200837944e+02 6.329177553961566446e+03 -1.082090169881462771e+03
-2.215260092431617522e+03 5.365158795024903156e+03 -1.403357436170180335e+03
-2.123054333938115690e+02 6.329177431643520322e+03 -1.082074814855453496e+03
5.617682653630529330e+02 6.815171250337130914e+03 7.381154480452514690e+02
-2.152500397247163164e+03 5.405107114093846576e+03 -1.402700078847230088e+03
-2.694017539971779115e+03 1.670006692755546055e+03 -3.377842628695613030e+02
-2.186036093078947488e+03 5.383262905817932733e+03 -1.405013486394658457e+03
-2.123054333938115690e+02 6.329177431643520322e+03 -1.082074814855453269e+03
2.125957245226988448e+02 6.890425746392112160e+03 9.704864092098838455e+02
-2.123054333938115690e+02 6.329177431643520322e+03 -1.082074814855453269e+03
-2.215102183704134404e+03 5.365267566483412338e+03 -1.403371104014875982e+03
-2.203327712851087654e+03 5.372543870705552763e+03 -1.403228092964512598e+03
-2.123054333938115690e+02 6.329177431643520322e+03 -1.082074814855453496e+03
-2.213702279837164497e+03 5.366224410149374307e+03 -1.403280194120881333e+03
-2.213702279837164497e+03 5.366224410149374307e+03 -1.403280194120881333e+03
-2.044231909320287173e+02 3.494612772542074708e+03 -7.033703241135771123e+02
1.248203338559315171e+03 1.886771088475527449e+03 3.773338127477203443e+02
2.180563021422331929e+02 6.887994528609643567e+03 9.744955292962774820e+02
-2.213486315443744388e+03 5.366342432114149233e+03 -1.403291124421696168e+03
-2.195233212979720065e+03 5.377671075683969320e+03 -1.405051286445991082e+03
2.114041719039861107e+02 6.890675708147701698e+03 9.711363415594134949e+02
-2.213486315443744388e+03 5.366342432114149233e+03 -1.403291124421696168e+03
-2.123054333938115690e+02 6.329177431643520322e+03 -1.082074814855453269e+03
-2.213604218791557741e+03 5.366244531973105950e+03 -1.403310530204460065e+03
-4.835812125403368555e+03 1.356625291531056064e+03 -3.203588703804080524e+03
-2.212426771706253021e+03 5.366972162395319174e+03 -1.403296229099423726e+03
-2.212426771706253021e+03 5.366972162395319174e+03 -1.403296229099423726e+03
-2.123045164285676094e+02 6.329176596901455923e+03 -1.082078547485373974e+03
-2.213604218791557741e+03 5.366244531973105950e+03 -1.403310530204460065e+03
-2.123054333938115690e+02 6.329177431643520322e+03 -1.082074814855453269e+03
-2.212538460989952910e+03 5.366911567647766788e+03 -1.403321350544032157e+03
-2.044495321985119745e+02 3.494376371852713874e+03 -7.031819548462481180e+02
-2.123054333938115690e+02 6.329177431643520322e+03 -1.082074814855453269e+03
-2.245287653268908798e+03 5.286070983809117024e+03 -1.432481550313128082e+03
-2.123057989696184791e+02 6.329176250075122880e+03 -1.082077781459976450e+03
-4.827098636196185907e+03 1.328212741428930713e+03 -3.158931513680033731e+03
2.180563021422331929e+02 6.887994528609643567e+03 9.744955292962774820e+02
2.524535766870235875e+03 6.688591631140150639e+03 3.126456140661570089e+02
7.448244080716901863e+02 4.555672780192715436e+03 6.035243187043616899e+02
-2.123054333938115690e+02 6.329177431643520322e+03 -1.082074814855453269e+03
1.589000354173073219e+02 6.879104734455208927e+03 1.015038804406105896e+03
1.589000354173073219e+02 6.879104734455208927e+03 1.015038804406105896e+03
-2.123054333938115690e+02 6.329177431643520322e+03 -1.082074814855453269e+03
-2.044495321985119745e+02 3.494376371852714328e+03 -7.031819548462482317e+02
-2.606088471053424655e+03 3.220047038889827036e+03 -2.520193267711161695e+02
-2.213795597822264426e+03 5.366150784264775211e+03 -1.403330183518847889e+03
8.379304702712427115e+02 1.466996720232154530e+03 4.949042968752563070e+02
1.516665265112380894e+03 6.812444410895729561e+03 6.724279003798787926e+02
-2.123054333938115690e+02 6.329177431643520322e+03 -1.082074814855453269e+03
1.575640783864955949e+02 6.879275525480950819e+03 1.015858564701202681e+03
2.104489947837041655e+03 4.115421074844066425e+03 -5.439238507444922277e+01
-2.212656205698483063e+03 5.366838804605546102e+03 -1.403322780654536018e+03
2.368859267268219810e+03 6.715991788817096676e+03 4.029999104320082779e+02
2.356675799072580048e+03 6.715263371183496020e+03 3.977440440016544017e+02
-2.123067706160362036e+02 6.329179999600051815e+03 -1.082071922737373370e+03
-2.213833652783787784e+03 5.366111174183331968e+03 -1.403337081759572129e+03
-2.212656205698483063e+03 5.366838804605546102e+03 -1.403322780654536018e+03
1.277452353371295857e+02 6.874657841540135450e+03 1.036095778556152027e+03
-2.212656205698483063e+03 5.366838804605545192e+03 -1.403322780654536018e+03
-4.259765178031569121e+03 4.644133750502321163e+03 -1.453974214859399126e+03
1.589000354173073219e+02 6.879104734455208927e+03 1.015038804406105783e+03
7.372850542032095973e+02 4.557423196047739111e+03 6.095384627407718199e+02
-3.508778514310172795e+03 4.635548398489237115e+03 -1.973518634917340705e+03
-4.827311636137661480e+03 1.328346735452679013e+03 -3.159088134688062382e+03
-2.203215743404013210e+03 5.372608127769175553e+03 -1.404971445965107250e+03
-1.135513994941245755e+03 5.929134973114972126e+03 -1.193776770098375891e+03
1.102497368008044702e+02 6.871987005335186950e+03 1.047976955572768247e+03
-1.135513994941245755e+03 5.929134973114971217e+03 -1.193776770098375891e+03
-2.212656205698483063e+03 5.366838804605546102e+03 -1.403322780654536018e+03
1.651078872241195086e+03 6.791560492926446386e+03 6.173619852207244776e+02
-2.212656205698483063e+03 5.366838804605546102e+03 -1.403322780654536018e+03
-2.205085593488980976e+03 5.371450125436739654e+03 -1.404796991888107641e+03
-1.218096788615035166e+03 5.849371251539339937e+03 -1.245043905914385277e+03
-2.405722290626534232e+03 5.115887928822702634e+03 -1.543391971479112044e+03
-2.212656205698483063e+03 5.366838804605545192e+03 -1.403322780654536018e+03
1.599298542166792458e+03 6.793788413994440816e+03 6.218983206951896818e+02
-2.606088471053424655e+03 3.220047038889827036e+03 -2.520193267711161411e+02
-1.310417644769778462e+03 5.809367005686486664e+03 -1.256214101438677289e+03
-4.819766421243500190e+03 1.191589826412488264e+03 -2.919024004517706999e+03
-2.528808644431174798e+03 3.097467559433813221e+03 -2.198021236109514120e+02
1.589000354173073219e+02 6.879104734455208927e+03 1.015038804406105896e+03
-3.175450999891114407e+03 1.363084112905573875e+03 -6.454528085835803495e+02
-4.063258408217940882e+02 6.236771368247370447e+03 -1.114136773910026477e+03
-2.224430192130524119e+03 5.465601657603152489e+03 -1.296321595029229684e+03
-3.291231270120739737e+03 4.802237882708394864e+03 -1.802113887451744176e+03
1.514661037109705717e+02 6.878099599761158061e+03 1.020066741495244401e+03
1.102651249742078363e+02 6.871976745594763088e+03 1.047957757257568801e+03
-2.211274660532476446e+03 5.367677587744624361e+03 -1.403618547199285103e+03
1.102651249742078079e+02 6.871976745594763088e+03 1.047957757257568801e+03
-2.102333396003457892e+03 5.424655491467790853e+03 -1.382662983685273502e+03
1.102651249742078079e+02 6.871976745594763088e+03 1.047957757257568801e+03
1.102497368008044702e+02 6.871987005335186950e+03 1.047976955572768247e+03
1.102497368008044702e+02 6.871987005335186950e+03 1.047976955572768247e+03
1.543659535196022716e+03 6.796418016513101065e+03 6.274843010155447018e+02
-8.003840230466353205e+02 6.048126381848062010e+03 -1.178327258901543701e+03
-3.175450999891114407e+03 1.363084112905573875e+03 -6.454528085835802358e+02
1.102497368008044702e+02 6.871987005335188769e+03 1.047976955572768247e+03
-2.986614710003311302e+03 1.807535689849955361e+03 -1.403894275268951333e+02
1.292069425670548526e+02 6.874477098728106284e+03 1.035123686307940943e+03
-3.363475337635026335e+03 1.894506010201060008e+03 6.826177144555757081e+01
1.598991084487365242e+03 4.562823947633687567e+03 2.175816657796064533e+02
1.102651249742078363e+02 6.871976745594763088e+03 1.047957757257568801e+03
1.176540871987640742e+02 6.872844683021164201e+03 1.042927212663496675e+03
4.919181783503447150e+03 3.512259415407089364e+03 2.717285740140105645e+03
1.102651249742078363e+02 6.871976745594763088e+03 1.047957757257568801e+03
-3.175450999891114407e+03 1.363084112905573875e+03 -6.454528085835802358e+02
1.102651249742078363e+02 6.871976745594763088e+03 1.047957757257568801e+03
-2.203571212926268345e+03 5.372365534183497402e+03 -1.405025147532827532e+03
1.560185370913406544e+01 6.789995228599201255e+03 7.766701217161105433e+02
-4.273318438861204413e+03 5.009862394526810021e+03 1.896024350595362193e+02
-2.606088471053424655e+03 3.220047038889827036e+03 -2.520193267711161695e+02
-2.606169244740915929e+03 3.220230743896567219e+03 -2.520254088168330782e+02
-1.198688508802781826e+03 5.856754670824981986e+03 -1.242744851787241032e+03
-1.833069268185384544e+03 1.994794761555886680e+03 6.844655048737249103e+01
-2.565308485306169587e+03 1.832222601559180475e+03 -1.602702228303660945e+02
-2.606177622975354097e+03 3.220226415388766782e+03 -2.520356343866489226e+02
-2.606239626453651908e+03 3.220299899832244591e+03 -2.520678402795316799e+02
